-134.5539506650273,122.23043832695447,64.62641467491407
-152.4953657499339,89.99781940725832,30.102070725736443
-97.9322300436434,103.13316912019923,88.40308112163258
-131.21229923323406,-122.42498084206372,119.9167231984284
-124.30123171404338,126.15168347285923,81.75474253738236
-103.84703482178878,91.55141889547733,47.06192874645322
-93.41534439246047,-29.615809791751246,63.71845320263739
-107.35319098105202,68.59528197041726,42.99531150962352
-128.8065005430579,-34.34990773090719,67.17774054103656
-93.38552806630716,-61.27084699919449,61.04731333468398
-104.51383503345717,87.76599772207517,49.51246644026174
-53.172029693774704,-19.145886483686738,41.82299659932376
-121.04177409988685,-40.13070103028562,48.933703623669544
-127.15158168674704,31.364261178827807,33.64464839458745
-73.56379484740675,-26.90980512245956,111.75350465545348
-158.20426307823396,-79.52158495306142,51.1656432172399
-167.31004503602696,11.47781541597861,78.48795296463373
-125.56143141095747,108.36239284800635,49.033342356194254
-103.82460196882562,9.072153230331333,40.608232668487574
-69.01420633734634,94.04369897020301,-6.887394528261133
-77.95820261140696,59.42690526526198,6.416640875987376
-170.2810969394231,-36.63074647078261,19.18751013994011
-132.2316897537053,-53.496322172435,75.42536499260675
-159.04028680830803,17.743068243461913,55.5345457454002
-129.68435610825225,114.03639544569245,93.98507759845157
-138.02203466820262,19.571596055549527,55.73059757339962
-87.39263838551548,-38.513789447936595,42.1912120197627
-124.16433490026532,110.62099004082432,36.79236344639803
-126.02285706617843,106.52636334053683,29.55137778986645
-163.89593254695873,175.5083591858119,15.182897097029986
-127.11790248720696,-1.7944377519221497,20.59881838017972
-106.77488493148458,-27.22023222952157,37.209797205106355
-100.60106154647164,34.32391533182667,65.94445997756277
-87.51206086532466,-10.5077170506185,68.08388305022326
-143.64194543548038,-77.07114708139535,26.62905713531174
-107.96383990418019,-121.28615026367339,71.8407522096381
-136.41393932645698,32.90855796939015,0.5382109352012421
-140.2211445908555,6.6292554899168525,39.62759239345395
-104.86943579035778,-23.147992787805762,49.15990558863149
-137.79580550553982,23.410911080877366,23.912162929312924
-110.67767679860958,61.52924733347591,22.24046478917883
-106.4245652117706,-11.332839839122066,88.29603814952594
-102.47371993500987,-118.99693671077074,45.00047301162933
-191.7177211622473,-1.7022209341932104,95.27153459803714
-102.06486705786037,-65.49054817037575,46.74587894033093
-157.84656285741937,9.376561778157722,50.02405381261119
-123.9848427055973,219.27711839249758,91.77711967989387
-134.10033660338735,-90.93049524979111,86.84049832227757
-102.75274494767433,-161.52298991393636,85.00598920527709
-104.67021137771006,31.49424264681369,53.90885306163887
-81.88681866695717,-11.104996559168242,70.57338556982174
-116.89547827548364,43.18771773039238,31.395538694029227
-139.103427509922,19.953742118861378,111.83337118801217
-112.42706693563808,45.466408107930725,12.669456968856366
-185.9326933516482,21.52705372464935,56.550730778212724
-106.80714184098795,-4.404456057818216,67.41939519254129
-148.439688900499,45.49949072712476,35.43526733415198
-151.33106926367165,-126.72512909367225,108.0802323552318
-70.47240105612866,-92.3791261166104,32.97163149728456
-161.58957019171828,140.00221703270142,37.1429014145661
-137.0199625869938,-18.551639666708667,43.778358876818174
-133.52203910845276,5.923292742464616,11.722025239211376
-117.64599708115222,-3.1607332052774524,54.27702683727615
-103.67129811066782,33.85219875324851,39.77970870210321
-60.8961116483476,-23.17076212459247,57.05231764767942
-113.97487641572594,22.074769375274577,25.902590391687223
-132.16690461258014,20.053956488602275,27.615326522591126
-102.77393088471327,13.873233744303732,95.76490399218642
-129.25417978502503,-43.32765519500947,108.82607094148882
-135.93281024225482,68.45806116187322,47.588376408866665
-106.14971509446846,-97.82677733021897,42.20021236444924
-91.37489980253858,46.268556149785006,62.649976394763726
-101.28999962427856,3.1504649159968885,13.297451736266098
-140.65421503628434,102.72995402250461,-0.3629643805107037
-118.35635759669798,93.64896487966851,42.46997468692408
-117.07155473663845,-68.91250076892459,114.45985749102793
-215.29381530947813,95.55478126764979,4.993356822541983
-111.1937448900317,30.823603585442214,84.7580153864244
-168.21413610442573,-9.813511363823267,51.12057929968186
-134.66066025363662,49.12816839792198,-12.334931934526892
-112.80672317497317,-70.34430552495793,49.848010351049325
-89.99371272670922,54.04355955787695,35.943622227290106
-124.19953891461147,177.6160334803232,69.43424334842655
-199.08862905565195,-30.155203520165898,98.16653173461691
-115.89911104522338,-67.36233834109615,29.27510049942677
-94.83743040403544,52.09905254669354,71.45363398363247
-95.56387148401242,13.945185984303604,60.819024468552215
-100.84941567026621,-33.037974724328045,-17.8649958683055
-124.64617038814659,35.14140885012768,75.0119368569799
-134.8169896394098,37.26822445899447,9.902928946957374
-171.1821745715758,-34.69682297578929,42.913412052702135
-207.28017836625418,-46.79112044723597,60.727240428783034
-128.40742636516038,143.63407018421668,65.59094174899747
-114.97470052663189,-25.207051614473272,58.65692287943513
-109.92350874578116,-32.90421467978591,39.83798887384141
-82.38205871513284,62.85266554481754,89.8494758409924
-127.13679548454193,79.9874072681022,99.79084821815245
-109.76385724481088,103.65356874338025,52.54518451237673
-79.05782357386786,47.903828061087566,9.819356253530152
-167.12019150834405,2.073908551918489,69.31580053318055
-101.91932574238193,40.97331461749667,49.471617753270536
-186.51567844386494,-18.612556403349814,22.28089635080604
-76.81338438613882,-6.161017570358936,42.94756115956786
-157.50986522608926,138.19408008742846,29.92599086238391
-108.6251017557633,198.57022216684527,98.757638417077
-101.17556169971606,82.86089581494828,58.82936177146114
-129.45438268309582,116.47123542040475,6.196808820146927
-111.396483708831,74.11849391185784,17.82101349876683
-154.19876266258322,-2.2459769420701683,38.84761040904977
-130.20037198933238,32.45019002941335,47.10506227495249
-85.76023149863605,20.577935736757183,66.02283280340055
-80.80933549067026,84.04414195244163,94.73444270109867
-68.11036900647832,-93.99466288719958,35.8502883916255
-135.116188674863,-47.345119557883535,51.15674455680818
-163.19661263428065,-43.1429796971601,60.37304244143878
-122.00435044824847,-65.13629583035927,44.6886217378901
-128.06317130321335,82.9638876738063,55.66950607079639
-188.2100672377329,-26.15995404750543,84.35236343099636
-130.14567811375417,53.63522810419952,29.72717231401339
-159.88840780950994,58.859583389907336,51.22195828020285
-83.44713744145133,30.709412316957554,56.61922089921787
-147.32618157201523,26.664841878112487,91.5239815793722
-99.53485138701855,19.465826314102248,37.89298119492169
-127.67345019546686,-56.62005032987116,47.493606580751205
-104.93581252320956,31.300601398583296,34.80694213672552
-109.23053960006193,25.776974702528815,55.28330401732635
-128.9478584159322,26.58781066942062,46.62363067911578
-103.82899050926962,135.6525391238308,66.52806146699416
-125.05663541912635,-127.16143203767297,35.87508051459298
-110.11867886223519,-54.57765335099664,27.56287969083329
-115.09840923873698,68.78566311162172,16.48558314681496
-131.2439865867943,70.14290494058116,23.234710162433934
-138.98429874146612,107.28417886740141,75.03900684031568
-97.72585887044255,30.104483423290795,24.85816993128392
-140.08740589755467,11.088754249974622,41.87794754579214
-129.35438049324702,42.78376269807457,66.18671083847313
-132.0458670673653,37.84036462601137,66.47996745166171
-70.92753364966833,-63.4954985762527,86.50516478897798
-168.01801371569482,39.91055956393057,43.61613016583457
-110.74626487072001,60.984572782124516,55.32506718306905
-89.30004629087688,21.311565494826365,54.48953258603826
-97.34158264937162,77.11878596291928,19.96271584205767
-137.43636513330756,30.27863216794367,64.39898112317984
-94.48615506799594,72.31113106158274,53.4258388982329
-156.67935997108555,26.18027920427015,37.43508063862661
-137.90835516850873,112.11481922878939,49.42652130138498
-132.05762303864034,19.145128647001926,-1.91416720661406
-116.32016176282987,-9.413800509663805,79.94796277800556
-106.61470462547246,-23.600698466310163,48.5812602148685
-187.5305256218786,166.08637216988348,55.62428381570464
-126.49853192332857,23.292597541419045,64.22159634406373
-114.6675301689672,-96.87747815620169,65.57589576363473
-143.9641070301855,13.676617824703252,42.40495734496153
-155.65980256126778,-19.506715481966054,97.36650157756678
-110.36657590235487,-0.6896481006097233,48.64584602505484
-64.99766592399419,104.90207576319831,6.431606012142609
-108.28796020143223,16.497478946610173,47.97689687063438
-90.64849690566119,-32.49350239839974,56.29069912997778
-102.2622550366796,11.022545649520199,71.19337362154883
-137.14918975206862,14.643538148805371,15.024817928878981
-85.32906178029253,29.38251966645526,-3.8908893389887353
-123.26665822389188,-84.85607160637247,62.83245897736007
-147.23046061373583,60.38950205035188,68.61859245123581
-31.762756093193786,76.08002045657479,14.014168565424747
-145.60230683955504,18.693054752700856,69.89179269626008
-114.48553744016715,93.53101702274162,74.74084807217838
-139.31073688721483,-71.78054956791415,40.83488638408098
-85.58271254659853,222.4616307386523,24.20146904989502
-101.91656929486761,-116.40748160403493,22.050033545229514
-149.13185370326676,-149.9876494243357,51.02605994662327
-102.86552054528983,171.56918687670645,87.63183026425929
-87.35748740518596,5.850934621930799,51.70591054928888
-134.7472843899437,-113.85221206080519,39.66433808961271
-104.25605746937863,0.31981162750902925,24.9449899410518
-119.42637437417442,-96.13530077692457,2.8142736073507706
-137.66459115090908,6.325522551171673,74.12140300334539
-119.39067612097435,3.951106216518447,-10.084301652150849
-112.0478189768317,19.619094302263345,70.33242984196495
-87.57079654111826,111.42199487234576,39.99936885255688
-128.60539457706537,-6.547911912691017,37.02664452587878
-79.85714332880946,-20.548562913448052,45.13734328063505
-116.23877824428624,99.39622154471962,33.41893993836773
-140.67402627065582,-45.61260879336902,27.1152599834231
-139.60589302887024,152.81624278969463,66.14649583886872
-131.59387818012263,-27.122455954631135,15.404221454033753
-98.46196416749041,33.989677705788765,85.19503885344912
-135.52216573452628,-14.394036803219954,29.30955181183773
-71.6041477832319,78.00968654120652,71.33784020012037
-102.08800295603955,80.19859420503337,89.00039954087003
-146.95811090067278,-45.40446606461187,53.96659563704037
-92.83853118655175,40.34465529985985,29.676406374940537
-106.57517005572247,-56.8581295762618,75.57969914746896
-111.21631051043946,125.13796113634362,55.641661184270816
-85.40605083287193,7.4523551795930825,46.62956225680936
-163.21919511530194,-120.48180219331095,41.93575383192956
-112.30293984476414,100.22012758238363,60.92295923161643
-111.62710213923344,1.7876268880050397,13.567170088377836
-55.683338499829276,45.871895203403795,67.74033818149604
-78.58507851155281,-77.2250092470447,115.99902672793364
-122.80408440862767,-23.733675051074883,82.72060106747676
-139.0853677820199,133.20621771512407,62.410425315186316
-164.6955966521496,57.38975822690805,22.357098192749667
-123.81773740185801,-3.194598942431753,30.057128700042245
-116.22746042836738,27.418045164209914,68.45212535524149
-119.48547050268976,-47.71882753354046,25.647271805882323
-92.52483529822891,-55.439307819889265,36.70892589887382
-112.14184588141232,74.23675848654527,48.33534969666522
-96.01990194560554,-20.406102060159796,22.50250572106892
-129.0562773762111,-8.193163651448764,94.49393973886546
-118.5583763803137,-58.22593747558501,72.97821520088118
-97.43222033144201,40.63217953838079,55.67857778593236
-113.55394628884174,179.30885028694826,43.17898994508629
-131.99379141545236,89.57499369290093,35.20326683390705
-97.42762315738784,-54.063738126478626,72.2613256025251
-95.5760805766829,77.04607989787999,23.858741187095692
-166.35478595264638,10.316428187634429,22.293305618355834
-86.79344535573081,57.99866548846245,108.02940210067356
-105.0896046890746,74.95420418578229,39.63159859587409
-102.68510539559702,86.26265878846948,93.95739638160526
-118.41954277081734,27.92578660647301,41.69201086962344
-96.2681720391242,87.50344806782714,72.50272202171232
-74.34190016197948,18.31520108227234,102.66581535905146
-138.9108501155271,-125.16983314215813,69.79396714931424
-94.803322638334,87.8339951337607,64.8739744870438
-129.20406847943607,-147.56990938386562,-25.996449477767854
-147.66694186522506,23.62623047183093,64.31960649381233
-153.90556339827515,-116.95385705305858,64.5950442154309
-147.97651834677848,-28.55970727140486,25.01483109238604
-145.5092302839251,-136.92151004353855,31.53527180947678
-110.42804893083817,-31.47898934301341,-0.6269543960465853
-57.75684495948599,-32.605560614105684,47.67890977864894
-168.1631708422815,-7.74964817753898,14.748416493432956
-162.35858898593258,212.30815482402517,67.68215722932422
-95.59452210869779,-24.383054725610123,11.026783812737285
-67.58720120108971,-150.06626032990982,113.47504909925988
-99.80249852983184,-37.62968813215467,3.8578325379548275
-78.11691605891498,-179.81437737758324,57.48277969231573
-131.08931168142377,77.49626259224517,41.57930957807865
-103.55816127361686,-100.82379465535365,39.32304916307593
-118.62892752085837,-73.6365420682148,18.228816294176063
-107.85852300560617,222.86806397696859,63.69366814284079
-141.5618650880638,-114.88926936909894,38.40451663993663
-165.90262832135176,175.20683942251782,36.50765383965577
-127.78675834672603,-160.85940981491615,26.030126806930028
-147.93374810586425,14.847605639270363,30.684283557321816
-149.1447764596481,43.76685499887844,25.856645108900533
-149.98420228930053,-90.21869290690873,39.072638871694984
-166.19949183180762,-21.009721545973008,-15.436504922107346
-129.00706536588754,-122.11959675945462,-6.406998806133998
-105.17370837842545,24.546067288021753,28.448495948067833
-120.04865468060554,83.35763193673382,65.97389929716553
-138.9441135727375,202.49466825811027,56.60254727707056
-134.4736126996192,-15.453275482269781,22.883208999655473
-105.44495924103587,-118.89022740551579,16.564239093540955
-107.22129718713272,16.380914003305197,42.9652602101245
-117.81939501126125,-65.65457445588855,69.54452585503813
-75.4795150457679,-41.500751141336494,37.735095789550726
-70.70538334744685,-99.48342953140542,50.832292606393665
-188.78889286175547,13.881757498780322,85.89714983526036
-138.53844891347262,-68.50752148189028,33.49172803700503
-109.11266413690682,-70.38457881267468,54.47962594907506
-113.49777664142246,70.4156349233584,41.865835391611384
-111.3941202154738,-128.63080860472695,60.30382749096516
-117.27991091634613,11.540871390382954,53.94523688954881
-142.33143173973767,26.765330341631177,86.76409545798577
-144.25723635886527,-23.556337282501104,126.92486220982252
-132.79752232196043,-49.405388737408146,-32.506740185692735
-141.510498896901,-41.869809003628646,66.72962366724106
-88.50157489237057,-217.36283282990132,80.67203678001306
-113.90015004996006,37.277286640064666,15.510152185923175
-115.53175889462031,89.47501512555634,35.67504226816311
-112.64859124482618,45.345852709643,14.73913160495239
-105.31207268013647,-51.467070477320476,55.733203487723614
-119.7470822240602,80.24889984461366,79.94669072587925
-96.49546252725622,21.5134864416269,33.279305113667355
-132.84063726663942,148.93624292798023,33.25098833145307
-114.28475870418112,63.25566972293298,60.57895695792624
-155.82293698451613,44.142962516672895,101.23687662107321
-106.42020766660303,-16.739404247756482,85.00626276528696
-153.38367652739151,-21.15687402281631,53.39323324324457
-134.24178755856343,10.875138834613592,41.29272434211603
-198.97386904119514,-60.269672753621975,67.75415230193218
-118.31421001635363,-27.43812346453496,7.618943613903944
-116.37578568174158,-8.978534898622598,30.841395595004503
-92.59649229641127,88.47319811228586,35.368131292064
-119.85011199245757,171.12189257985992,96.5055358343378
-153.6969722354879,-155.60409877765355,23.218649335868896
-120.99656183574703,217.707757564429,57.691477111687696
-106.4510023205078,53.145129741485846,41.495682696723364
-128.16177350109652,20.25713253440017,64.05193786097519
-119.70283269877523,-41.64335840754002,52.52451334612236
-101.84030410510763,61.43498695725509,76.42879350488857
-131.28253911496483,178.62390133721706,83.02753457345918
-79.40409602890391,100.27047754321116,68.34933674459006
-152.53177455512588,-30.06587615581332,44.77667656924909
-89.88610406153109,33.8386016109942,76.70718309261974
-160.25759248995567,-51.92830509366868,-25.539093373444643
-117.1561465128804,87.31941637963358,38.79245433721126
-83.54354148944041,39.88848100637459,41.54980727235945
-128.22327317389716,60.45747926461751,87.64929722461389
-117.63188204796693,14.835367631041779,40.94933099757598
-104.55901920531326,-38.36994556167838,57.89185379576648
-188.90813049361708,-39.0632757012916,28.414045989068555
-159.6950214180905,48.87273357667482,1.2349436557860969
-102.72276945584969,-53.82552717029151,109.01948557389403
-194.74294803325282,-71.4711285285513,34.214736076605675
-152.61494731278057,-1.3156955177334737,64.87775553320307
-108.10307278639117,24.963295872869843,56.32899063835855
-165.41477070031965,-44.689857217198735,83.33048657118707
-122.45443687382566,70.61042965106714,22.908236386568646
-147.51444913022746,4.726095734953351,-8.517915159891984
-104.75035026626645,-34.87324335254945,19.141418640810997
-99.80077724962982,-64.4104604748022,61.42122089941143
-135.07933545122015,-52.93773000949271,15.208763269845747
-100.91723758759818,-29.57219022897918,72.1069970429123
-170.00214364926808,273.37592237975446,50.14570927991968
-129.7858660327682,4.7015231019203245,15.009824882316593
-122.63120166334015,43.041852788810544,63.22055829669157
-140.0062349191804,157.5222301332808,47.23177043515023
-155.75965391693342,-85.6143474770635,63.545324064310776
-98.95184718230745,135.4006851471305,76.78640916134407
-166.92518218088307,-1.0914518837434386,26.83975411149931
-126.95889959351324,-13.475327154460771,16.16881510282007
-172.37493225504994,162.003565274933,52.548023272468974
-25.44367392378122,-14.650684866224196,71.44305165190148
-124.88116839787425,-34.22399546874438,57.09533842562143
-116.66467097182215,-150.2289536619624,59.80472163875694
-121.19964317126161,130.1236597101348,9.364050988226118
-141.23580925698565,-6.48651824617556,72.50491552887772
-92.13489482745996,18.628332525931484,70.04216651242578
-99.46793352805173,-46.24292378015532,119.14834560144973
-125.51972131985275,19.989474126399937,23.32574024588291
-145.39152349838386,-112.18843330842921,40.84007960394696
-111.16277227220557,-70.2154103736855,21.60721897992419
-114.98404230421494,105.92747131556857,10.244837305321838
-77.53177446093542,-39.57082866535259,83.51758964196918
-146.7013737454942,30.196184387692387,17.993811460599403
-108.10056508709059,-64.92532416875443,71.53742294472421
-95.60424111002101,88.32132866316789,63.82253042665855
-74.34436047243513,25.075769662841154,37.92726625700108
-3.6929691568218317,-5.628817810075933,29.353492285824462
-73.4570757560266,-64.27116332230466,69.25645258543187
-74.77530304541921,50.19260737061263,67.04045997612945
-128.2369838700862,91.36555671343261,16.4347174418807
-98.99932696133365,78.76012058767745,53.41677349698254
-105.49469111187094,250.84608098251402,90.35056996033822
-99.41323978032376,-3.695879952911014,80.24826218134596
-109.21057663596078,26.26063036901003,70.77720563084502
-106.59613794780111,-38.87364386423926,51.54601015660503
-155.91419719155243,-5.769503151641796,33.75581317733507
-69.6292960069772,21.85443973082319,43.1285199789022
-138.68040432393101,-42.464198678495535,64.42569167796309
-138.47142767640932,-36.84795452686153,18.524744101394106
-136.8068819496773,59.574737516344925,92.87060868829042
-91.93582117926933,-112.67315384752632,62.48400002114244
-118.31963731228667,18.28954341942641,37.03571748985073
-146.29598830112886,-156.7595032800989,46.13057069488623
-80.22770948496985,-20.67809019009936,47.90847571671307
-101.63757505621105,64.80517530095442,84.5997949537636
-132.20354309263513,44.13758514039777,20.155415545695842
-117.88405965884341,-7.099991926735537,35.752005264738145
-79.94977360581844,80.80540171208176,3.632835935574974
-100.11774593770338,-26.509750497094203,16.966844064733827
-123.87014120220498,-2.9184546188954386,14.274596283271912
-163.27005554918284,-68.61710641858781,72.20820593021651
-123.80692438120522,-99.1638206574369,19.922113430625014
-113.67960545784409,-64.52976569935645,20.02284468168465
-106.73405103478936,-77.11722013797484,51.41771937392484
-94.23072369774906,35.10230453196905,89.48807827450057
-126.78080894572004,79.93294784989074,-10.810274644572885
-164.0454954134248,-11.284716300737578,50.305468080971714
-146.90734785244473,67.54709803538715,51.849711413078055
-136.7853464045713,47.50130845611185,78.97261874593057
-95.40553903919681,193.00472186120803,23.51643727728073
-139.15447628608354,-41.86343225824149,13.27379999079978
-171.13137269707332,58.23209049716202,55.74770841973154
-154.04265441313672,-75.75999429405145,60.47204740635654
-158.33261550549403,9.097427636498804,39.3492293850059
-136.9468714228028,-123.4902920302566,47.04793359735778
-96.48962002638993,48.13660339877522,49.7382191386731
-82.6566693254927,192.0993588831965,73.6450774585551
-164.6787415351696,116.92865943989766,70.40002713305512
-132.19728304049434,-117.70059013390465,52.12842450168578
-129.84107278508475,-209.73231449031883,79.26466053539778
-133.79367140485854,-33.719381544064106,-0.7134785913046855
-127.50736421107042,-131.49744986875493,53.754517583977275
-127.07809455702593,-89.12593593736602,55.78936601528749
-125.97060137470609,111.62797856789133,71.77239167307201
-84.65232822956794,78.47484922292566,2.125104578587269
-152.3160925618904,-4.809408092022089,67.54666245949477
-123.30838826447582,38.50694808980133,84.52623423045503
-94.88409036102917,-33.002343902145334,83.7287340017049
-63.679295153511376,-232.11524704291708,42.590774350461906
-115.80613142735089,111.03459307647618,38.02907714511528
-110.73520283890323,-3.4604552537633637,41.635446436996915
-64.79787728853219,75.59712674210613,99.19528859514683
-69.73422472955973,-11.49136004094629,22.393347609973066
-109.5511106529392,93.29004439361816,109.1643690299727
-109.84578915787512,74.73473236981107,68.01981927367122
-85.27548440973547,-5.842971734738349,2.7953718033128894
-120.85319974936228,-12.956753026114733,52.54925223430201
-96.41062326901304,-74.04738341785914,66.40189590603038
-129.59965969842548,14.201156868900364,92.08074832861153
-137.52002192762757,13.82307390477464,47.26380012264573
-127.1321068258178,45.67988033736556,60.22620055368696
-165.8814387336335,-29.510638384195644,95.67035178370878
-91.68119421667593,-48.64239440734431,74.49939915724059
-98.96944498580402,-12.50551968702807,43.276810845539394
-59.8531774789988,-34.02476000953988,57.37874976564722
-105.39538506897715,9.313340539498228,32.829644611735
-118.64885694774559,71.20294137274112,63.429681322337615
-76.51166516512478,30.042029408907116,40.36232938119807
-140.3556028424897,155.28722619637168,59.18156269504103
-107.77684811693672,83.82060837489054,27.616046551432486
-130.01099543452145,189.73448360985404,74.78109080252442
-138.76725625207055,-133.10585652801956,17.634509040296678
-94.35295196021704,122.75854226860619,38.74636261271072
-118.93694155365763,5.437521303970865,39.789479956012656
-131.77625527754756,74.81732652177999,51.52377061262885
-127.14431268654936,-0.5571921217608278,45.54622269168276
-122.9750985046989,32.63553308703233,52.11588329207229
-108.38888342954586,43.7820960865468,11.377136907736741
-129.95425563787285,8.67492715809696,74.91034497595093
-129.13389925957503,-58.84131842499144,32.854206956386726
-84.3853905804321,2.846854769123645,61.218381787616195
-141.18659229391164,-104.5797384011952,6.599572738940665
-62.85251569880407,85.89508789431952,47.96491631341509
-102.16493855225383,40.78078255414792,30.919890441791964
-135.16788443449101,7.565814268200839,64.1912735617538
-59.23967205862563,147.70100215282503,70.56954433953014
-111.41477766937429,-136.77412432296387,4.532286821696147
-132.39887971313263,-91.56077310770313,51.505903987501064
-90.06276991674982,18.84484583614353,59.75850433325339
-36.998917829235694,4.389263646072859,50.34682370069961
-113.82705989709338,33.62193970125584,-3.4183031061672082
-120.40850164843225,-104.86718544676727,96.87106050610998
-167.737906025056,-162.44885804367257,35.974087978647326
-149.42244296227298,141.82925339307639,61.23274587776697
-155.60699599507294,-74.83875785765875,78.31767687556741
-168.21412475953022,57.259112295204105,74.85937088045493
-101.5757634650481,-146.14889059841954,92.74614898719238
-103.21905136487645,-72.29638430564121,58.42222994374542
-123.90799566401613,59.51901209228792,51.859866566965046
-110.25644594737092,-66.0543516364482,1.0555548040101925
-144.99196957229677,-34.160583781951686,90.58612287341062
-134.34623850330658,21.904422881250955,79.20135577491975
-84.9234069331919,73.13219302925708,67.37492850978869
-92.96819527214025,-9.322272343651473,95.18860264746915
-111.19655066437439,43.499682071494746,41.203236204787316
-152.53179033802004,-21.65023470847612,51.908300480207956
-173.77955432248783,7.895455939374971,7.876105330360673
-140.1480759743207,-19.732398071081278,7.801484077952729
-154.92586079041976,47.70249541307531,58.216566488597124
-169.66923983605903,-3.804449363149285,56.82819498540209
-144.92255368537735,-17.38231444243108,87.67741996714575
-140.53339547590323,-73.35859926121736,44.31745151238717
-77.48136492558086,-51.44772727686063,54.65407791301688
-71.99047188812634,27.954866125018686,52.59730597524233
-136.9544517631709,-97.2660742485269,25.98029485350829
-109.64746871839496,13.843010080152972,84.81421168683971
-143.46994445796855,-16.953710363297617,-14.632333883630523
-82.10727194377233,-130.29890167422258,30.698805390942358
-139.52798641585545,78.52676261308906,38.489149192881
-128.06747408976955,-85.60662759668296,-14.61769407305411
-126.34960689561966,21.27275959397267,62.26484222762791
-163.34848478890538,50.87808715148992,92.81471033788603
-111.22665010270647,85.95944803920379,51.14529733537394
-51.128837153841516,-52.59345993577968,37.45480473078095
-95.01789965395287,-27.975303270350977,71.43824663929412
-81.90196471404809,-119.64046452101951,77.59781800070061
-131.3671798641754,36.273676718465424,-20.98668489131049
-98.28450810787447,-50.37024294753125,27.40941082326028
-116.80085216487255,72.91891901376326,121.21988783170751
-82.42200051905898,21.13548465588619,29.35439435718327
-77.2832012614598,94.9200721983131,61.75574671295252
-123.52935031292307,-33.747300461713394,72.6820189124928
-143.99938657009872,118.55313989212435,29.26922950943773
-117.03610747958656,-76.18647019663727,54.49669728534456
-140.79056480231577,-56.45181452490087,53.02179882341498
-176.96102863830458,38.92862230392593,49.27276432303674
-157.59833478533045,-22.592179229599836,73.86702958515265
-68.3600000599672,105.70316920117872,40.974117611269605
-155.73557265104603,51.591631605299156,59.56924614493024
-105.73121441815154,-12.173072091685711,59.775128298898466
-89.6590908613658,42.76916778506106,11.865217874726547
-124.537670917631,-106.41193531976492,98.61199307215853
-142.88874495218784,116.94759689351814,40.12941537223866
-112.56721913212071,88.61739840402944,107.65306378406889
-103.33804779856361,129.3620057834613,94.72291321857969
-113.43200661353056,-44.87884599629781,84.90773064411022
-146.65545382829166,53.5818221077626,37.15807423620406
-136.49347402669065,8.906403842849183,113.67436032351753
-127.56018714439291,17.033015728755906,38.94246379497147
-130.39398651807173,109.86163766161059,7.626444639496128
-99.3083955547336,86.17512886373436,33.926089913238435
-80.95068393128747,-70.20301841484702,54.06563512829717
-101.91304878167524,-150.10419326542768,62.087292458863274
-74.78761827267894,110.72332373038977,41.969838150786636
-136.62693614627003,-23.305698605799847,57.585840115457806
-126.32104532703549,-5.181467582830738,76.93361006375861
-129.21747271889998,-116.36836426016708,61.46388943053677
-141.15630472304701,-148.52707267523482,107.38964348969688
-138.33170334541464,131.63399843196063,108.0847730451865
-126.37818109042931,73.15466763289773,98.99866305042858
-104.20905247060864,-43.8084096621428,84.34961204181894
-131.359326224601,17.690246098808146,47.084532192539584
-139.6250802566154,71.40947094773361,12.103083311516798
-127.80750057421164,-62.940899181346964,83.1958261040242
-114.55855730389032,148.0951794193711,-19.535207914176
-147.5682700660071,-66.58763741961798,76.91125391468681
-113.74354166386476,60.991477640506275,51.94358668567398
-126.58250018692324,29.832853019018216,64.61417156208108
-122.83204735313832,56.79310044381542,13.243841176642697
-100.38394457263034,128.13637346961787,33.9393230452108
-75.52906837138974,126.23679418800816,22.840492247791893
-121.78388419526478,-88.89092699047592,23.673784381881685
-100.98663046329224,10.919692193764789,21.575175366615074
-81.96354573231875,14.476988533879247,56.047525574853054
-116.10281681952483,31.06199530787579,51.39338899170456
-121.96027291196529,-9.592505843844364,3.994825982316158
-121.33976430572557,-61.744236264415306,51.608889151630656
-129.16724718035385,43.400168232863976,59.10127292010942
-98.91558246309133,70.46247584328736,50.76722364228059
-129.57880243268318,45.97716416734395,13.038682150351988
-112.22935813707672,-10.040312541794655,46.10755800456218
-98.5856813098997,-12.154474353408553,16.84102167506458
-88.95450385877203,-12.596786512489352,28.833624158603158
-124.30881272872949,107.73744119968532,62.72774577919705
-123.39781118928369,113.5155994064497,36.757276429854215
-151.8592384336743,52.69473232354456,76.13499114330189
-124.43592682426991,37.85819695587368,124.66632358661549
-150.4509520056102,52.295461250477274,23.096617185359086
-145.07367435194087,-50.64557258319128,10.762798472621078
-52.55283098497017,145.3475579257693,34.37436205347939
-75.50326323889774,-6.432106362642081,67.64214026304509
-159.31950968763266,-62.48946801671519,61.804511466156285
-166.77663123714484,76.91152082981975,34.04690040404668
-101.37971724824017,143.48403049613165,96.0197191630042
-117.52162516767424,-13.512923087091067,77.89397726008525
-142.56611944735658,-6.755687938291807,19.873435599003237
-131.54422005274927,88.80583017860144,33.27784298462596
-95.2168624021767,87.78278033965363,21.192716833832716
-174.1742167748539,138.42580408630988,87.90850182232553
-94.69770433042672,25.314128342804707,88.45656539288431
-101.29684505090403,-67.82438909229742,55.049157681203845
-96.52198448088043,-108.51831480318558,50.56851570115256
-98.33765538439474,-128.548478821914,10.555823215571614
-68.43267873991826,54.48232881372793,62.96085246349518
-93.94734286196946,20.516597317414302,38.148009980461794
-127.76380608606037,41.71060514852496,54.828598415277284
-132.98122790501787,15.266680254238114,64.18217312867283
-116.58306838219494,106.59682440044234,73.92925075198607
-92.46996313561135,-137.34435835343558,74.87706080315289
-122.68929049235143,-20.467525949449403,27.9752850931473
-114.59322276057372,47.45126124492876,30.565187491780737
-104.40920402206721,118.07998976335602,12.883970109547796
-68.9014725410288,-18.310725089552207,-19.13228219701054
-97.93879114160134,-114.06762479197639,76.51744456055623
-126.86756089737452,-9.298213898256897,65.33026714839295
-105.98950060992445,36.41895431322867,57.49600114961576
-143.27306246438243,34.82497519048063,64.70650234911837
-139.0447677361983,20.784845336626578,63.04006878790911
-109.83637905616773,-18.053278100788866,43.94411301876697
-100.37074795862178,-31.82489799759749,-23.992890768011563
-60.55512358349148,-70.8889847146356,84.3521875066036
-160.86651465198918,83.45290298764672,16.66159517308612
-115.64667547651908,57.20259641296988,-18.75148057173047
-123.18439538022358,10.704518907977757,23.851073867563578
-71.43801493494416,59.17406251780029,103.55156699625456
-165.73348198312712,98.68614616686997,41.53152085011753
-214.43770735017102,-89.34290595690447,22.360781569270358
-112.33473897625906,9.977937481822481,48.65257274168408
-86.04220752057583,-69.18437390300636,47.3016098623868
-138.9396158025877,94.79040924861556,29.92102701932825
-80.56574808853529,-13.553116928411661,25.37466348545675
-166.2029277262199,87.53947555218275,8.121480685150935
-148.63714804663164,16.683454871498757,-11.441988186996682
-78.40012752650519,36.49476664927591,43.83000436654291
-127.92585787566561,2.8530781519238246,104.02751538000598
-161.11890530849513,-161.8350096850273,32.23144643839156
-115.53382471383425,7.054705753410849,50.64982886348132
-136.85142619472447,-8.38893553565741,51.9019497333488
-160.26551812664655,71.12637302081801,60.349409894584056
-151.90211498106004,189.58292552521038,101.421251687
-159.85592802033213,126.74281885919973,84.00023785456816
-130.05052317973653,19.605209962455067,14.675394553320324
-110.80746175247471,-24.675948582627463,50.32249560905055
-115.90802678383845,23.80788439674508,83.83492688189052
-77.27475908358562,23.24348356584699,70.82202974298113
-70.5168992922627,98.28985569590975,54.7649588530593
-151.8039687310855,-32.68172732447643,33.256591992535945
-68.46831779662463,159.24894388769192,120.16932469267095
-148.24995055224818,14.278714306416568,94.26717069403827
-171.4112462108223,72.13330102591954,59.44676062320118
-103.70804290743646,13.51350486148648,29.30366087044838
-154.27173535088878,247.12618159642386,52.58068995916071
-205.37385519388357,-26.90498112813608,74.44346350847799
-137.5119050214382,-21.30372786181431,66.89560982684266
-179.27712677303418,120.39292688909245,50.39016258926914
-143.4672108525362,84.08194279790368,50.681993475472275
-77.51397802682229,122.02777608680987,37.99001854894151
-102.3789169258324,29.138822797691404,93.34424993132525
-91.06419110647127,-52.523388197695695,50.18730722728991
-102.35642176424687,-107.8355827540064,101.30538774790645
-83.76717047319167,102.32469187862418,33.95767663528239
-152.01655161981472,145.15541567569437,34.50810207937903
-139.9078846963531,260.33460075098867,79.30085313824792
-153.61607818544263,-11.657800967859227,48.30104530438831
-38.07517106220486,198.42820149644842,63.57866234355383
-149.0238974254689,57.20568891688337,65.99582796374442
-115.08953015359364,65.91769633141271,7.030359645714327
-82.50164267229525,142.09457067697136,7.904154979814514
-114.10496353850756,-8.851974026139928,60.21904574556736
-151.06383870558545,23.883552074010037,50.73565052795232
-137.13927567072867,-96.96304741301005,-5.155978561617211
-49.17498861915,51.896646235164056,8.620929140899733
-102.91044263172252,16.696152126805885,33.53755541164249
-101.81845699423778,41.58598175024912,49.00280795926994
-159.76528693633813,2.3755999049289898,65.19345251378849
-85.90046670061841,41.42998530117289,34.39602995054565
-122.69194252065637,62.52835299277987,90.23019539753483
-81.57214038377734,-140.30061097225052,14.938075466882033
-113.32453902024623,15.265607777325345,35.11365404280842
-107.58425348664974,-75.32241430826329,108.64056505484143
-153.73314798219178,34.565052222916385,76.74926351251071
-129.3985343429429,-14.216666280681224,51.073410487194515
-122.46998853364272,35.52824487586443,58.740080263764895
-151.98521958690765,15.567134902076209,46.52380348690665
-108.52843320772686,94.54114617914554,52.61341617042786
-117.52459996018241,52.92039394038406,39.08606857727381
-168.22804239577357,-58.11914932105073,34.92523816688343
-115.0743811216835,41.29386171269607,92.42391170591928
-140.41981894491454,28.95635958988415,71.54307079897526
-156.78425384960633,148.80012494020403,28.772095678712958
-169.7544313786726,128.1861036464133,77.6646270716375
-122.04695915409283,-11.432480423195713,77.89743095999043
-123.78659825058382,-13.412685014689714,18.024835556947775
-116.78721040621411,137.02818828299328,28.558584852406273
-106.714057421196,123.82302585656896,11.605867698511155
-107.76021821146965,-0.17734175496036642,16.698179874723493
-124.20667908241415,-175.41663738478002,16.006730242208178
-103.33211174972185,9.686139416320088,96.11934673681225
-84.00723995796346,73.95672200953368,-5.0595418217641495
-101.81005698174683,116.05496075269885,91.45546403182072
-115.12977564557983,-123.87821911740554,32.20466232564605
-119.22126017423889,-26.743504820485995,63.596909032966195
-104.27992278100467,-17.328097238427688,54.66663058867257
-67.82200002304218,29.891762155757554,98.58586800125936
-161.41988410849874,124.00303887784722,60.2703554229989
-89.37343133389285,151.4674137742796,46.15042264613436
-92.34672270174303,-41.63075609240295,43.92984586580803
-129.67815938630687,154.01284506470108,65.42865616880627
-147.7567512776345,87.65442229998344,28.994864741738173
-156.24302996808683,129.77227097327778,64.94868605104303
-84.24465728015608,8.58939522909594,10.979391498373417
-180.1951676797038,38.99603664934384,40.39351535406866
-135.4655698960062,121.21580989279053,43.27764014295127
-165.7105997532089,157.2020606416925,9.861942506889491
-84.5789075842505,41.23946317016021,56.67001937242205
-138.65009003513313,-43.05546152941453,71.74782659486671
-124.52299147899188,89.47464344228435,73.86298287028333
-127.36398666331918,18.894625739728806,20.628863028962556
-156.805887842847,-53.23471757520436,48.00186334196048
-107.32997997428345,-11.979683130167995,64.1804335160418
-118.37760197368772,-61.20489974235325,1.8334208055504178
-93.87903708784262,138.7555604560791,70.12112254938884
-126.94371003687979,-48.632112687549494,-16.058232471785217
-196.32066540665116,91.99420739291115,108.36542806239919
-148.83127198477692,142.57370784439763,73.24860048935564
-96.18636168868468,27.004963668904374,-4.393712692392498
-107.4242188770172,-25.870515585484355,92.1434800429534
-114.11178402395173,-94.16027892086662,50.34440366281893
-82.09490038083328,-190.4793319132018,58.12219557434101
-119.85489394643653,75.73205006521991,37.82455010128492
-99.01861918711795,-68.28233606746964,0.2760337951702141
-98.44995629267873,8.75749379623712,68.23043404017145
-120.88379408254774,-55.954485847480726,40.66498527648638
-142.51289076661828,-5.112301887728961,-10.20658115184024
-139.62307750479553,85.80844126203048,67.25514367537502
-92.93149614141149,-42.8257235109593,51.24159039845188
-81.4674002620126,142.545999876054,21.10434541349926
-146.6274795184607,-13.504880113022068,81.11307962178451
-117.92986971208929,-111.45524528996089,64.74222169695337
-95.78168710937973,23.139350116667423,7.615852111015592
-184.45177054432037,9.83620667554922,58.9592745455588
-138.6124296738334,32.862199154353526,65.30490784001748
-153.47323321782443,79.2201990849809,25.897747919512398
-126.78577589837911,98.23976943653041,29.423311154161873
-149.67797875799025,-81.15407945033422,65.90504350851042
-136.56105249703666,43.57806696235161,76.529189564134
-104.65168633650234,41.90251572405778,29.349114544437462
-88.38310924200758,29.557047155558866,55.443210080887454
-91.3416647841087,-58.702919863805306,31.56361847359727
-121.15310467523511,17.29899476033979,86.20459503231189
-147.37451783666904,-3.478316401487511,103.14021135982844
-90.76288433300232,1.4751877532607978,8.66475928789982
-146.51971584042283,-30.733758840318465,73.80925462504013
-101.62896872049399,30.52333999633598,25.663515817001784
-100.76362121000521,-6.474939408697029,75.43235567043104
-90.6310407883957,-47.78265679755721,-0.4642618141962558
-174.46128711313597,3.280993609873338,13.100605251823744
-155.07868891169832,66.41480991355317,50.015789115966435
-110.5392959734425,222.36898777157944,39.83187990042736
-146.057003150083,19.723225931532383,117.81220584832754
-111.56474350742022,-126.200832172574,102.09809820851385
-141.8255406709005,-30.718652672208563,38.51117836761702
-112.61876915223931,47.374843512512975,27.403805267563303
-112.96515162298712,35.547298481427525,14.240470484610597
-109.35121766898595,-3.900577426026487,63.10362442493121
-167.47272394336554,-50.730097793203385,57.010675771236166
-176.18429240098973,43.228418198679506,8.676142181958987
-200.92503778108437,1.6003535791104078,104.37070395063247
-140.04155188758023,6.243826669610421,7.27452801058061
-78.97862217876238,12.709314757554871,31.52707165325989
-151.0574763427526,-0.5811520761526339,37.77137259614497
-103.32742415165039,-1.8690097305169147,17.72475191592887
-155.81030277940005,-2.1038543985599816,7.811860718572447
-97.29982361317064,174.1920470431122,-7.237535943850631
-89.86530500243066,-76.20381391354644,9.664190873703689
-55.42698563819509,-14.202062117962235,-13.161234574941396
-130.30130193088323,123.09551376757182,10.977744840366299
-123.48045582148207,232.2226670025724,-3.9194335899553607
-106.72796793309949,-52.044690709195734,64.25607921056252
-97.8598940344105,163.28839610098416,60.348895568458246
-83.8591208257383,77.48223885207454,1.0702577973936158
-102.88997869367542,-102.11146404143598,106.89034761483074
-139.43183781459868,-183.7336058305343,57.68837526005299
-112.2967886243467,19.86020087581112,31.08477169764616
-132.8191043519228,-61.88180612726519,34.548285992757044
-112.90686999423401,9.891027787334906,61.7438690781301
-108.17942721051867,-81.20618813003738,67.05454620097672
-149.5612745677319,69.13805772846139,86.86005915665277
-107.5598555576283,70.88611632687392,39.30344069048823
-101.61374785647116,-27.651803151294402,44.92474861753245
-141.50616776911414,-41.62821784819585,70.51016849955697
-168.1172357254522,3.031555341590135,-8.90448517392722
-143.36785771677629,0.14591499476689762,76.22153943601575
-61.963436442604895,121.5117257308812,19.17511584530085
-131.3503616345137,1.1028873610875465,39.82015537666683
-129.10365599356086,141.52682949440327,25.74116921524878
-113.76044141217112,70.72029110265845,8.004330518751722
-127.88948203878206,-47.745762731169094,36.87675042225301
-97.64412676625975,-59.751172775389364,96.01470495870137
-128.88675510957927,23.77976968948466,23.405012670188718
-92.57787705368958,30.3648851503975,45.14853232550646
-59.78874769868157,-11.689708679629263,-34.45348570266452
-149.02768629820903,103.47335943483554,41.109849958677984
-91.88235102119515,-10.189158363014922,98.42424342625557
-136.73364896752145,187.2698243301631,49.806395916123606
-111.95994296777114,106.21896729231317,105.67245616996864
-78.01997838522115,39.78477128460433,36.24935927759204
-129.17766988542826,-33.5832372661406,29.943519280381036
-98.8611381551601,35.371063773454594,69.27129592636354
-140.48143879566234,118.07148027693201,68.1697799227961
-112.99411732262158,103.44721862781802,54.45948682970176
-167.82142547618156,-4.789069881751505,81.59464807594715
-44.51958640701393,-77.36817960124176,-31.9968885240868
-125.75301697963408,107.68995310331871,76.68902462083064
-105.96912149168885,-76.47916516152485,70.4960265304614
-99.95954595663987,-11.951671146969986,56.16761477678803
-121.62942203315971,57.25315660054128,108.87449160794868
-128.64294918483188,-62.01638730141576,38.85680545700554
-101.87876985545482,-21.27386396808742,62.682502722637345
-84.71504344576326,123.72172057675881,37.572878896530696
-118.82166980110127,24.05789390241656,26.448007558965248
-137.49381273510582,125.58187377507096,19.195899078595456
-111.97071209551582,82.70172927546223,24.67366313410292
-112.42032966570665,73.60627083438428,12.832029080598822
-117.48017060357711,-159.63389857070436,-49.97875184569442
-159.91352802676937,-45.424139530295434,66.04237676223002
-112.68205661057931,-34.69378687429433,53.06078093010046
-101.82337944992156,-6.10505313016445,-15.55399495146034
-94.71823920023714,122.10382089627872,42.78194883504269
-174.71906357789715,-77.78471986451684,111.35869162917967
-81.05639792268207,-54.083089862444794,84.57515633934315
-89.69698982285388,125.69514462576018,88.76497914425907
-42.54339988922092,8.040077006618013,80.51362712230971
-118.10888091147493,167.44124230082778,35.551100562423734
-98.10020920297073,38.327373155225395,89.70527384327264
-155.7649855202996,69.21783562557258,59.68620338001828
-124.97330183040968,116.72071697411569,39.35074385613385
-121.07962321418886,141.5371293584665,36.007135072064294
-126.1193913159653,85.01130166053315,36.893589882049554
-107.77452552029614,89.10680613807558,47.20842516002525
-130.49346450108425,-21.538268931120356,62.31641854314249
-150.1122058874097,63.0961995068406,-11.23960673440336
-119.3438287725057,-158.58916088623315,60.40427536284922
-153.87998604010994,14.439137521731357,4.530267902637306
-180.7607647023508,-15.062726089378408,36.676908293501754
-121.34743068448431,-20.826067079327295,32.76225763614258
-125.85556899818772,51.78766181582351,6.499453636357323
-117.83036799770979,154.24420521247418,4.976440020061347
-136.47683230134612,22.676785599076485,67.38489039945291
-142.61096594703957,-133.50422491118982,12.528237624311664
-104.95764053328953,1.3543394959103203,8.663495030002949
-119.7379613955126,-13.070423292163142,76.00416332829795
-156.79664574814794,3.8058463282111603,25.61822448109719
-129.1419363566338,118.69590495593235,22.07615413355553
-146.59182319670907,-167.39294421171778,69.63606211075223
-105.96283407748183,-34.271404604231286,41.393139304406695
-182.47288946013987,31.824531178505893,32.08334592127684
-145.0843967589745,-110.88559723515206,26.57658870561
-149.93887829106367,-3.8221564300512867,79.85143857674004
-76.50580098773068,133.73597245315096,55.345253257924945
-111.4451826728168,-6.146861957423845,69.63334789929519
-160.49725292475563,53.26136303088012,15.263575228116729
-118.34690951501518,-73.85674351807117,59.263083071775114
-91.32419263217477,5.283456277602532,59.58828997823444
-135.1935115140152,65.2300114802629,51.26029066953051
-96.41459821723582,47.18879000001313,4.72259220376305
-88.70396966645745,97.52022185881859,61.69174081812115
-77.18242637962376,-41.65075395827195,41.771364719635194
-126.27973010199887,22.51411863545101,60.61509927743913
-133.40726463947956,59.32802436238876,28.11893867769354
-82.4626600639645,-0.8850978060798269,58.51864742941527
-194.56872267805153,65.45952455550561,48.63906670708667
-148.32620202324995,-41.52579109444663,82.8535771431053
-149.34101296505318,148.1974909345312,33.41883251723928
-101.8490193541209,18.593457664251382,49.936441608014135
-167.40558325885365,90.48915447265738,-3.7199032181986667
-94.63289682234164,41.536398990171435,-2.497689327442444
-125.39860500613256,88.33013579710773,-8.235676132318773
-99.58807229966087,-62.625761944521685,106.21944674172727
-164.11305311307453,26.952044050630672,94.67586627426357
-141.38108346427416,14.828840745710583,78.64423141796637
-157.54530865192086,62.5103697795636,60.2696806119313
-99.66018879735924,-34.54459937143145,104.53985994454709
-93.3580255578688,90.43045114875825,43.150149128082745
-101.9194664246067,-7.766571751637905,74.93941288540437
-154.22107952848108,11.553113394192065,10.326449779395674
-157.3655776901074,37.12702212206882,42.25218528909917
-146.20294390504594,-45.33335177356906,62.931321473575004
-92.03240633645692,15.819038709346763,38.2812494010438
-144.42148662307108,-183.32353451400425,5.624938622422874
-100.22245773357457,66.03969529609526,42.58382503721923
-111.0631841139289,-193.11630459289285,63.151078382025005
-92.43356119540339,50.01084332812473,61.69948714957013
-175.47746876151626,56.40648723665209,99.95200211108339
-64.52497177005438,81.79010485736586,33.97872844028892
-154.7419844074647,-26.267069134546517,-2.6055248819249144
-52.85065053243699,37.17930385278241,75.50946216303689
-106.1286660991605,151.72318730658768,96.14050021241201
-196.51629056447797,78.03570298318306,17.25046390678822
-132.44024008918691,34.96219855282826,26.442569754081166
-100.9269922690124,10.430050757417836,112.13986319903658
-147.72080683407503,157.06800439613997,88.20417983835156
-160.67064565983648,70.00929844366063,71.3294531711881
